Atomic Coordinates:
100
7.344130 4.806180 6.805280
3.240560 0.959130 8.417270
1.803780 1.570430 9.327010
1.723200 0.053450 8.342770
0.239250 3.241200 3.577200
4.575250 9.487190 2.745350
6.693860 3.713400 1.688890
4.908860 3.654420 1.692440
5.787740 4.067280 3.190880
6.839440 8.575360 1.041810
0.433790 1.484610 3.563370
3.729650 6.067670 2.407440
3.904310 1.576660 3.683480
2.741440 3.448690 3.145210
1.943540 2.460150 1.923600
5.712140 5.576120 1.705190
5.059330 7.658980 1.808430
1.242290 2.434600 5.210590
8.081990 8.407420 5.675860
8.694410 8.194200 7.758930
5.605360 4.369490 8.001710
1.774200 1.850610 7.242390
7.395830 3.116320 8.157810
4.728010 7.242520 8.816380
3.015770 1.367400 3.328950
10.115210 7.158380 3.572470
2.470850 7.573240 3.032340
100
2.520920 8.016720 6.417250
6.114720 1.656240 5.373740
1.356430 4.885430 0.669820
8.596570 0.925380 1.144110
2.207660 2.498980 2.982690
0.938780 2.431400 3.791650
2.151500 1.055820 8.416900
1.514420 1.377130 6.004320
1.323110 3.588290 5.936640
1.615650 3.222030 7.227180
6.381340 7.649920 1.364090
4.679410 6.380650 1.987330
5.786730 4.166700 2.102120
4.208440 8.855290 1.917760
2.745220 8.536880 2.024660
9.444590 8.427500 3.506710
8.085010 8.513030 4.197170
9.547800 8.081070 8.937560
9.111290 8.094070 6.490310
7.004230 8.813350 6.454690
3.956020 6.067360 8.657180
4.494820 5.216010 7.520280
8.727820 2.536010 7.932850
6.839730 4.163490 7.510710
5.378860 3.444670 9.021340
6.500270 2.680750 9.132430
7.399610 8.686550 7.766280
6.776180 6.336350 1.263020
2.304890 8.287970 7.800540
5.701350 1.043910 4.152340
7.423370 1.226960 5.707310
6.056990 3.080180 5.133550
2.293450 6.637430 6.168100
1.595560 8.800450 5.691920
3.861290 8.339790 6.125530
0.787970 6.068270 0.140660
2.775220 4.942940 0.759240
0.858910 4.666400 1.975340
1.001670 3.833440 10.117770
9.640460 0.604480 0.233980
8.221270 2.270180 0.939500
7.515350 0.038760 0.834930
8.992930 0.763670 2.487090
5.279120 1.254400 6.432680
9.942180 6.630810 2.769040
10.118000 7.805490 6.193580
6.900330 8.929320 8.698680
6.067570 9.142420 6.011950
0.182010 7.599850 8.645190
9.718360 9.054580 9.410620
9.031250 7.412900 9.635720
7.394810 7.744510 3.827820
7.656160 9.501580 3.945120
9.296000 8.702440 2.462370
10.118520 9.184810 3.938480
1.515080 7.449980 3.182160
2.339740 8.229870 1.027770
7.716940 5.870720 0.975370
4.342950 9.427010 0.985940
2.299590 9.520130 2.256080
1.178740 4.575800 5.505480
1.695360 3.794760 8.143670
1.588990 0.339740 5.690940
4.412400 7.927420 8.205920
4.039860 5.514730 9.589680
2.900240 6.330590 8.522900
3.734080 4.530960 7.124580
4.829350 5.850890 6.694510
9.149740 2.975380 7.026530
8.617080 1.458890 7.786990
9.363340 2.732410 8.799250
4.437980 3.395800 9.545440
6.712550 1.808370 9.733350
7.340290 4.812020 6.811030
3.246930 0.956650 8.406460
1.813470 1.571990 9.324450
1.727300 0.052490 8.339270
0.245740 3.251890 3.566400
4.578540 9.489350 2.742420
6.700980 3.715580 1.703080
4.916830 3.648110 1.685300
5.777530 4.070480 3.194650
6.840100 8.580550 1.047140
0.432270 1.485780 3.562110
3.731550 6.074590 2.411120
3.903880 1.576270 3.680430
2.741710 3.444580 3.132890
1.939200 2.453320 1.921940
5.713860 5.574030 1.703860
5.061820 7.655570 1.805570
1.237080 2.436280 5.210880
8.083120 8.405400 5.672900
8.691140 8.199450 7.758390
5.602430 4.371350 8.004570
1.777660 1.850100 7.240380
7.393760 3.115770 8.156120
4.736400 7.249240 8.823430
3.011290 1.366110 3.331600
10.115970 7.155930 3.577780
2.474340 7.577140 3.028370
100
2.524090 8.015990 6.416050
6.110660 1.660680 5.373590
1.352110 4.886560 0.670470
8.596960 0.919290 1.144790
2.203940 2.495170 2.984050
0.938420 2.430470 3.789490
2.158310 1.054760 8.412120
1.516470 1.379290 6.001910
1.318540 3.588020 5.940290
1.617260 3.219890 7.228280
6.383800 7.652690 1.363180
4.682270 6.378790 1.988060
5.786710 4.165070 2.105060
4.213040 8.853180 1.918660
2.744680 8.542460 2.024280
9.450780 8.426040 3.509830
8.090200 8.513620 4.194370
9.545690 8.088580 8.938760
9.109980 8.096150 6.489620
7.000590 8.810530 6.449660
3.961410 6.076840 8.661130
4.496540 5.223780 7.521400
8.726010 2.531830 7.931290
6.838520 4.167310 7.512910
5.376180 3.440360 9.017750
6.499100 2.677170 9.130410
7.397310 8.693060 7.761030
6.778150 6.338210 1.263740
2.307280 8.281560 7.799940
5.693130 1.042550 4.155200
7.419960 1.234230 5.702960
6.052990 3.079540 5.133230
2.298310 6.636960 6.161460
1.597440 8.799260 5.695390
3.863790 8.340220 6.122660
0.791020 6.070870 0.141480
2.773450 4.937120 0.763600
0.854170 4.668230 1.974720
0.998070 3.835920 10.116660
9.641370 0.599650 0.234370
8.221700 2.263470 0.943160
7.514310 0.035110 0.833640
8.991470 0.752400 2.486500
5.277570 1.261790 6.437430
9.943470 6.623460 2.765930
10.112570 7.794650 6.194300
6.892920 8.930570 8.694600
6.063510 9.142980 6.009000
0.183890 7.611070 8.649560
9.711820 9.065380 9.410110
9.033940 7.420780 9.639790
7.397710 7.751210 3.816980
7.668090 9.504790 3.948620
9.310580 8.708440 2.464460
10.126900 9.178290 3.948260
1.518420 7.450380 3.188150
2.344810 8.221280 1.028030
7.714150 5.868050 0.973280
4.344040 9.415780 0.981190
2.293680 9.524550 2.243560
1.171150 4.577520 5.515360
1.698450 3.789390 8.146740
1.588030 0.344850 5.680570
4.416010 7.936590 8.217850
4.050310 5.523680 9.596720
2.905730 6.343410 8.536580
3.733940 4.537840 7.127330
4.829700 5.857530 6.691090
9.151250 2.968790 7.024330
8.609120 1.454870 7.787720
9.360470 2.730450 8.800560
4.437950 3.389320 9.547310
6.712750 1.805730 9.724670
7.336580 4.816900 6.813270
3.253460 0.954200 8.396700
1.822440 1.573170 9.321050
1.730320 0.051510 8.336110
0.253380 3.261870 3.555720
4.581180 9.488880 2.740030
6.708270 3.717900 1.717180
4.924390 3.640920 1.678490
5.767810 4.073950 3.198550
6.842670 8.585450 1.053570
0.429880 1.487550 3.560710
3.733150 6.082420 2.414110
3.902280 1.577210 3.676440
2.742570 3.441540 3.121880
1.934380 2.445710 1.918800
5.715630 5.571870 1.702670
5.064570 7.651900 1.802470
1.231830 2.437800 5.211330
8.084330 8.403760 5.670110
8.688020 8.205270 7.757830
5.599560 4.372900 8.007620
1.780700 1.849640 7.238300
7.391620 3.115370 8.154770
4.745050 7.256030 8.830730
3.006830 1.364660 3.334140
10.116650 7.153370 3.583150
2.478260 7.581050 3.024470
100
2.527480 8.014870 6.414900
6.106720 1.665140 5.373230
1.347720 4.887830 0.671300
8.597680 0.913360 1.145380
2.200890 2.491240 2.985210
0.937640 2.429230 3.787260
2.165330 1.053780 8.407190
1.518690 1.381720 5.999310
1.313940 3.588080 5.944550
1.619190 3.217920 7.229400
6.386040 7.655290 1.361840
4.685250 6.376970 1.989230
5.786580 4.163350 2.107800
4.217960 8.851020 1.919380
2.743470 8.548110 2.023510
9.456960 8.424650 3.513070
8.095360 8.514180 4.191560
9.543390 8.095700 8.939940
9.108670 8.097820 6.488690
6.997210 8.807460 6.444780
3.966990 6.086570 8.665160
4.498360 5.231550 7.522430
8.723940 2.527900 7.929840
6.837020 4.171040 7.515500
5.373780 3.436100 9.013910
6.497880 2.673500 9.127680
7.394700 8.699550 7.755580
6.780160 6.340350 1.264770
2.309570 8.275200 7.799390
5.684850 1.041110 4.158070
7.416600 1.241650 5.698430
6.049010 3.078710 5.133100
2.303080 6.636610 6.154810
1.599310 8.798060 5.698700
3.866270 8.340700 6.119730
0.794170 6.073590 0.142410
2.771560 4.931270 0.767950
0.849220 4.670250 1.974120
0.994440 3.838100 10.115430
9.642380 0.594820 0.234860
8.222120 2.256790 0.946870
7.513150 0.031570 0.832350
8.989990 0.741060 2.485800
5.275840 1.269340 6.442160
9.945130 6.618260 2.767710
10.105670 7.783970 6.194210
6.885320 8.930760 8.688900
6.060400 9.143240 6.006920
0.186790 7.623230 8.654110
9.705050 9.076520 9.408720
9.037280 7.428800 9.645280
7.400740 7.756810 3.805340
7.680570 9.507110 3.952780
9.323930 8.715770 2.465120
10.135320 9.170340 3.957900
1.519920 7.452170 3.194530
2.352080 8.212070 1.031050
7.711160 5.866480 0.971140
4.346170 9.405100 0.977060
2.285850 9.529390 2.232000
1.163150 4.578650 5.525160
1.701350 3.784590 8.149730
1.586880 0.349730 5.670500
4.417840 7.945390 8.228170
4.060000 5.532770 9.604180
2.911430 6.353990 8.548890
3.734030 4.545240 7.129920
4.831460 5.863490 6.687740
9.152520 2.962340 7.021870
8.600850 1.450510 7.788220
9.357940 2.729030 8.802740
4.436290 3.382920 9.549780
6.713110 1.802350 9.717750
7.333150 4.820920 6.811950
3.260150 0.951740 8.388060
1.830930 1.573670 9.316530
1.732470 0.050840 8.333370
0.262680 3.269750 3.545740
4.583620 9.486090 2.738500
6.715560 3.720290 1.731270
4.931610 3.633010 1.672130
5.758470 4.077590 3.202290
6.847150 8.590070 1.060920
0.426270 1.489620 3.559080
3.734280 6.090690 2.416480
3.899240 1.579230 3.671450
2.743650 3.439330 3.112420
1.929220 2.437370 1.915440
5.717450 5.569690 1.701620
5.067530 7.648080 1.799190
1.226550 2.439200 5.211910
8.085510 8.402510 5.667480
8.685090 8.211660 7.757260
5.596820 4.374160 8.010820
1.783330 1.849210 7.236140
7.389430 3.115150 8.153750
4.753950 7.262900 8.838260
3.002430 1.363050 3.336610
10.117240 7.150520 3.588370
2.482500 7.584950 3.020720
100
2.531100 8.013330 6.413790
6.102890 1.669520 5.372690
1.343340 4.889210 0.672270
8.598680 0.907580 1.145870
2.198560 2.487210 2.986000
0.936400 2.427820 3.785040
2.172510 1.052850 8.402110
1.521050 1.384390 5.996500
1.309320 3.588500 5.949360
1.621400 3.216160 7.230570
6.388070 7.657620 1.360100
4.688350 6.375200 1.990800
5.786380 4.161550 2.110330
4.223060 8.848790 1.919840
2.741750 8.553730 2.022290
9.463160 8.423360 3.516340
8.100490 8.514690 4.188770
9.540920 8.102490 8.941120
9.107340 8.099070 6.487590
6.994160 8.804190 6.440030
3.972810 6.096440 8.669350
4.500250 5.239300 7.523390
8.721620 2.524240 7.928540
6.835260 4.174670 7.518460
5.371590 3.431890 9.009920
6.496600 2.669810 9.124150
7.391760 8.705980 7.750000
6.782170 6.342720 1.266090
2.311790 8.268910 7.798900
5.676510 1.039620 4.160960
7.413290 1.249220 5.693750
6.045030 3.077730 5.133130
2.307750 6.636370 6.148150
1.601150 8.796890 5.701840
3.868720 8.341240 6.116740
0.797440 6.076450 0.143430
2.769530 4.925380 0.772270
0.844070 4.672470 1.973550
0.990750 3.839960 10.114060
9.643500 0.589980 0.235420
8.222500 2.250140 0.950620
7.511870 0.028140 0.831060
8.988500 0.729660 2.485030
5.273940 1.277040 6.446860
9.947440 6.616040 2.775670
10.097960 7.773510 6.193280
6.877700 8.930030 8.681350
6.058230 9.143110 6.005400
0.190220 7.636450 8.658680
9.698020 9.087450 9.406330
9.040990 7.436850 9.652030
7.404030 7.761490 3.793280
7.693220 9.509160 3.957150
9.336190 8.723900 2.465470
10.143770 9.161200 3.967490
1.521410 7.455590 3.200860
2.361240 8.202660 1.036110
7.708650 5.865950 0.968840
4.349560 9.395450 0.973600
2.276480 9.534580 2.221650
1.154740 4.579370 5.534660
1.704060 3.780420 8.152570
1.585720 0.354200 5.661030
4.418400 7.953390 8.237460
4.068760 5.542180 9.611020
2.917180 6.362430 8.559610
3.734360 4.553480 7.132460
4.834620 5.868360 6.685130
9.153330 2.955910 7.019460
8.592480 1.446070 7.788580
9.355320 2.727800 8.805000
4.433640 3.376760 9.552280
6.713710 1.797580 9.713100
7.329760 4.823740 6.807600
3.266990 0.949260 8.380570
1.839100 1.573360 9.310820
1.734060 0.050850 8.331090
0.273650 3.274760 3.536910
4.586350 9.481440 2.738290
6.722660 3.722670 1.745420
4.938670 3.624640 1.666380
5.749430 4.081270 3.205590
6.853420 8.594300 1.069010
0.421090 1.491650 3.557170
3.734760 6.098950 2.418290
3.895010 1.582140 3.665590
2.744470 3.437450 3.104690
1.923950 2.428440 1.913200
5.719340 5.567540 1.700720
5.070640 7.644200 1.795800
1.221250 2.440510 5.212600
8.086590 8.401620 5.664980
8.682390 8.218580 7.756660
5.594260 4.375140 8.014100
1.785580 1.848750 7.233890
7.387210 3.115130 8.153010
4.763040 7.269900 8.845940
2.998100 1.361250 3.339000
10.117720 7.147320 3.593340
2.486930 7.588820 3.017200
100
2.534910 8.011380 6.412700
6.099100 1.673770 5.371990
1.339060 4.890650 0.673380
8.599950 0.901930 1.146230
2.196970 2.483140 2.986280
0.934700 2.426330 3.782870
2.179830 1.051930 8.396890
1.523500 1.387210 5.993460
1.304650 3.589250 5.954640
1.623880 3.214620 7.231830
6.389900 7.659630 1.357980
4.691570 6.373510 1.992730
5.786150 4.159660 2.112660
4.228200 8.846490 1.919970
2.739680 8.559260 2.020650
9.469360 8.422200 3.519540
8.105590 8.515110 4.186020
9.538320 8.109040 8.942280
9.105920 8.099900 6.486400
6.991470 8.800740 6.435380
3.978910 6.106370 8.673810
4.502200 5.247030 7.524340
8.719070 2.520880 7.927450
6.833280 4.178210 7.521750
5.369490 3.427700 9.005920
6.495220 2.666120 9.119840
7.388540 8.712310 7.744350
6.784160 6.345240 1.267690
2.313930 8.262670 7.798470
5.668130 1.038060 4.163890
7.410070 1.256900 5.688900
6.041050 3.076670 5.133320
2.312320 6.636230 6.141500
1.602960 8.795760 5.704800
3.871150 8.341820 6.113700
0.800810 6.079450 0.144540
2.767360 4.919470 0.776560
0.838700 4.674890 1.973040
0.987020 3.841540 10.112570
9.644730 0.585150 0.236080
8.222850 2.243550 0.954410
7.510480 0.024810 0.829760
8.987010 0.718200 2.484180
5.271870 1.284870 6.451520
9.950150 6.616120 2.788660
10.090300 7.763250 6.191450
6.869970 8.928640 8.672240
6.056750 9.142560 6.004030
0.193640 7.650810 8.663110
9.690710 9.097690 9.402870
9.044820 7.444870 9.659720
7.407810 7.765580 3.781250
7.705590 9.511670 3.961280
9.347620 8.732200 2.466790
10.152360 9.151320 3.977150
1.524700 7.460780 3.206750
2.371630 8.193310 1.041870
7.707230 5.866400 0.966290
4.354370 9.387320 0.970900
2.266120 9.539760 2.212580
1.145880 4.579960 5.543690
1.706580 3.776880 8.155190
1.584730 0.358220 5.652480
4.418350 7.960090 8.246500
4.076470 5.551930 9.616450
2.922780 6.368970 8.568600
3.734850 4.562760 7.135010
4.839160 5.871940 6.683730
9.153440 2.949410 7.017400
8.584190 1.441950 7.788880
9.352180 2.726430 8.806500
4.430960 3.370990 9.554080
6.714430 1.791590 9.710630
7.325900 4.824700 6.801180
3.273990 0.946720 8.374160
1.847060 1.572320 9.304170
1.735390 0.051800 8.329270
0.285680 3.276940 3.529430
4.589830 9.475470 2.739790
6.729380 3.724960 1.759660
4.945750 3.616090 1.661350
5.740580 4.084860 3.208190
6.861180 8.597940 1.077710
0.414160 1.493370 3.554930
3.734570 6.106790 2.419600
3.890310 1.585730 3.659180
2.744550 3.435300 3.098730
1.918810 2.419140 1.913000
5.721280 5.565450 1.699980
5.073830 7.640360 1.792360
1.215950 2.441790 5.213390
8.087510 8.401080 5.662610
8.679980 8.225960 7.756010
5.591910 4.375880 8.017390
1.787490 1.848250 7.231560
7.385020 3.115340 8.152510
4.772270 7.277100 8.853690
2.993860 1.359250 3.341330
10.118140 7.143790 3.598110
2.491380 7.592640 3.014010
100
2.538920 8.009030 6.411620
6.095340 1.677810 5.371180
1.334940 4.892120 0.674600
8.601440 0.896400 1.146460
2.196100 2.479050 2.985980
0.932600 2.424760 3.780850
2.187260 1.050980 8.391530
1.526020 1.390110 5.990190
1.299930 3.590320 5.960320
1.626610 3.213330 7.233210
6.391560 7.661260 1.355500
4.694880 6.371890 1.994990
5.785950 4.157700 2.114780
4.233250 8.844140 1.919730
2.737430 8.564690 2.018670
9.475560 8.421160 3.522590
8.110640 8.515390 4.183320
9.535610 8.115420 8.943420
9.104380 8.100340 6.485210
6.989200 8.797180 6.430810
3.985310 6.116250 8.678560
4.504210 5.254710 7.525340
8.716290 2.517800 7.926580
6.831170 4.181700 7.525260
5.367350 3.423520 9.002030
6.493750 2.662340 9.114830
7.385070 8.718460 7.738630
6.786130 6.347820 1.269540
2.316000 8.256500 7.798110
5.659690 1.036460 4.166850
7.406930 1.264670 5.683900
6.037060 3.075590 5.133630
2.316800 6.636170 6.134850
1.604720 8.794670 5.707580
3.873570 8.342460 6.110630
0.804270 6.082600 0.145730
2.765040 4.913540 0.780810
0.833100 4.677490 1.972590
0.983230 3.842840 10.110980
9.646060 0.580320 0.236820
8.223180 2.237020 0.958240
7.508980 0.021590 0.828430
8.985540 0.706700 2.483290
5.269660 1.292840 6.456130
9.952590 6.616430 2.803480
10.083490 7.753170 6.188730
6.861830 8.926960 8.662230
6.055600 9.141640 6.002360
0.196590 7.666290 8.667240
9.683150 9.106980 9.398470
9.048600 7.452870 9.667890
7.412330 7.769450 3.769720
7.717310 9.515130 3.964740
9.358430 8.740050 2.470090
10.161250 9.141220 3.987060
1.530830 7.467720 3.211950
2.382420 8.184140 1.046660
7.707290 5.867810 0.963490
4.360780 9.381140 0.969040
2.255440 9.544360 2.204770
1.136550 4.580710 5.552110
1.708940 3.773960 8.157590
1.584080 0.361860 5.645120
4.418320 7.965230 8.255920
4.083070 5.561820 9.620130
2.928120 6.373980 8.575770
3.735260 4.573110 7.137550
4.845150 5.874260 6.683730
9.152700 2.942830 7.015860
8.576190 1.438540 7.789240
9.348280 2.724650 8.806700
4.429160 3.365710 9.554520
6.715000 1.785250 9.709690
7.320970 4.823120 6.793810
3.281090 0.944100 8.368720
1.854820 1.570760 9.297030
1.736730 0.053730 8.327840
0.297660 3.277100 3.523270
4.594330 9.468590 2.743130
6.735570 3.727070 1.773980
4.953010 3.607640 1.657140
5.731830 4.088220 3.209980
6.870040 8.600690 1.086870
0.405470 1.494750 3.552440
3.733830 6.113860 2.420400
3.886000 1.589820 3.652610
2.743570 3.432450 3.094570
1.913930 2.409680 1.915120
5.723280 5.563450 1.699410
5.077030 7.636670 1.788910
1.210650 2.443090 5.214250
8.088200 8.400860 5.660320
8.677870 8.233770 7.755280
5.589800 4.376420 8.020620
1.789100 1.847670 7.229150
7.382880 3.115780 8.152230
4.781590 7.284540 8.861420
2.989690 1.357010 3.343590
10.118530 7.140070 3.602880
2.495750 7.596390 3.011220
100
2.543070 8.006310 6.410530
6.091540 1.681560 5.370280
1.331030 4.893570 0.675910
8.603100 0.890970 1.146540
2.195880 2.474930 2.985110
0.930170 2.423060 3.779040
2.194750 1.049990 8.386020
1.528570 1.393020 5.986680
1.295140 3.591660 5.966270
1.629560 3.212290 7.234730
6.393090 7.662490 1.352680
4.698260 6.370350 1.997530
5.785800 4.155700 2.116700
4.238100 8.841760 1.919120
2.735200 8.569970 2.016390
9.481750 8.420210 3.525450
8.115610 8.515550 4.180700
9.532800 8.121670 8.944550
9.102690 8.100390 6.484060
6.987360 8.793540 6.426270
3.992030 6.126010 8.683590
4.506310 5.262330 7.526510
8.713260 2.515020 7.925950
6.828990 4.185140 7.528920
5.365110 3.419320 8.998330
6.492160 2.658390 9.109230
7.381450 8.724380 7.732870
6.788100 6.350350 1.271600
2.318030 8.250400 7.797810
5.651220 1.034810 4.169840
7.403910 1.272530 5.678760
6.033050 3.074540 5.134050
2.321190 6.636180 6.128220
1.606450 8.793630 5.710180
3.875960 8.343160 6.107530
0.807820 6.085910 0.146990
2.762550 4.907600 0.785010
0.827260 4.680260 1.972210
0.979380 3.843880 10.109280
9.647500 0.575500 0.237640
8.223490 2.230570 0.962090
7.507390 0.018470 0.827090
8.984090 0.695140 2.482360
5.267330 1.300920 6.460660
9.953900 6.614370 2.816000
10.077970 7.743320 6.185220
6.852900 8.925370 8.652200
6.054460 9.140360 5.999980
0.198800 7.682710 8.670870
9.675390 9.115340 9.393390
9.052170 7.460870 9.676040
7.417710 7.773370 3.759080
7.728150 9.519670 3.967220
9.368850 8.746980 2.475770
10.170530 9.131380 3.997330
1.539720 7.476160 3.216490
2.392770 8.175270 1.048960
7.708860 5.870260 0.960560
4.368880 9.377280 0.968130
2.245110 9.547840 2.198090
1.126780 4.581820 5.559850
1.711170 3.771630 8.159790
1.583910 0.365190 5.639150
4.418750 7.969010 8.265980
4.088630 5.571420 9.622260
2.933210 6.377900 8.581110
3.735300 4.584430 7.140010
4.852670 5.875600 6.685040
9.151050 2.936220 7.014870
8.568610 1.436080 7.789730
9.343630 2.722320 8.805420
4.428710 3.361010 9.553230
6.715080 1.779820 9.709340
7.314570 4.818560 6.786370
3.288280 0.941410 8.364070
1.862350 1.569010 9.290000
1.738230 0.056420 8.326710
0.308160 3.276590 3.518210
4.599950 9.460970 2.748110
6.741170 3.728880 1.788330
4.960450 3.599510 1.653700
5.723080 4.091210 3.211010
6.879560 8.602310 1.096320
0.395270 1.495970 3.549800
3.732840 6.119880 2.420660
3.882790 1.594090 3.646150
2.741400 3.428720 3.092160
1.909360 2.400280 1.919110
5.725330 5.561580 1.699020
5.080150 7.633230 1.785510
1.205370 2.444480 5.215140
8.088620 8.400910 5.658090
8.676080 8.241930 7.754470
5.587940 4.376800 8.023730
1.790470 1.846990 7.226670
7.380830 3.116460 8.152100
4.790930 7.292240 8.869090
2.985610 1.354530 3.345790
10.118960 7.136310 3.607870
2.500000 7.600080 3.008870
100
2.547340 8.003260 6.409420
6.087670 1.684970 5.369340
1.327390 4.894950 0.677260
8.604900 0.885630 1.146460
2.196230 2.470770 2.983760
0.927510 2.421170 3.777500
2.202300 1.048940 8.380340
1.531130 1.395860 5.982960
1.290270 3.593250 5.972380
1.632700 3.211510 7.236420
6.394520 7.663300 1.349580
4.701660 6.368890 2.000320
5.785760 4.153660 2.118410
4.242670 8.839430 1.918170
2.733150 8.575050 2.013850
9.487970 8.419330 3.528190
8.120500 8.515660 4.178170
9.529900 8.127840 8.945650
9.100880 8.100090 6.483020
6.985940 8.789900 6.421730
3.999070 6.135600 8.688840
4.508520 5.269840 7.527960
8.709970 2.512520 7.925540
6.826800 4.188510 7.532660
5.362740 3.415110 8.994870
6.490450 2.654160 9.103180
7.377760 8.730010 7.727080
6.790140 6.352700 1.273820
2.320020 8.244360 7.797580
5.642700 1.033130 4.172880
7.401010 1.280430 5.673480
6.029010 3.073600 5.134540
2.325480 6.636240 6.121600
1.608130 8.792650 5.712580
3.878330 8.343910 6.104410
0.811450 6.089390 0.148320
2.759900 4.901670 0.789160
0.821180 4.683210 1.971910
0.975470 3.844690 10.107510
9.649050 0.570700 0.238550
8.223780 2.224210 0.965970
7.505710 0.015460 0.825710
8.982680 0.683550 2.481420
5.264870 1.309120 6.465120
9.953510 6.608080 2.823290
10.073760 7.733910 6.181210
6.842900 8.924200 8.642890
6.053150 9.138700 5.996580
0.200220 7.699780 8.673770
9.667520 9.123020 9.388050
9.055410 7.468900 9.683610
7.423910 7.777430 3.749620
7.738060 9.524930 3.968520
9.379030 8.752750 2.483520
10.180150 9.122180 4.008020
1.550110 7.485650 3.220630
2.402010 8.166950 1.047850
7.711700 5.873910 0.957710
4.378690 9.375980 0.968310
2.235710 9.549810 2.192400
1.116590 4.583350 5.566940
1.713340 3.769860 8.161910
1.584330 0.368250 5.634700
4.419840 7.972150 8.276500
4.093280 5.580100 9.623500
2.938240 6.381210 8.584710
3.734640 4.596550 7.142300
4.861830 5.876450 6.687310
9.148530 2.929720 7.014300
8.561520 1.434610 7.790420
9.338570 2.719420 8.802960
4.429490 3.356900 9.550210
6.714410 1.776390 9.708670
7.306580 4.811060 6.779340
3.295490 0.938640 8.360000
1.869660 1.567400 9.283580
1.740010 0.059410 8.325750
0.315880 3.276790 3.513990
4.606520 9.452560 2.754170
6.746210 3.730270 1.802590
4.967980 3.591850 1.650920
5.714260 4.093730 3.211470
6.889280 8.602620 1.105860
0.383930 1.497370 3.547220
3.732010 6.124640 2.420290
3.880870 1.598080 3.639960
2.738210 3.424260 3.091420
1.905060 2.391140 1.923920
5.727430 5.559860 1.698830
5.083110 7.630100 1.782200
1.200120 2.446020 5.216040
8.088750 8.401200 5.655880
8.674610 8.250380 7.753560
5.586300 4.377050 8.026670
1.791640 1.846210 7.224140
7.378910 3.117380 8.152090
4.800260 7.300170 8.876680
2.981670 1.351800 3.347940
10.119460 7.132650 3.613250
2.504180 7.603730 3.006970
100
2.551680 7.999940 6.408280
6.083690 1.687960 5.368400
1.324060 4.896210 0.678630
8.606790 0.880340 1.146220
2.197000 2.466540 2.982040
0.924670 2.419050 3.776260
2.209860 1.047870 8.374530
1.533670 1.398570 5.979050
1.285300 3.595080 5.978520
1.635980 3.210980 7.238290
6.395890 7.663670 1.346220
4.705040 6.367510 2.003320
5.785880 4.151640 2.119930
4.246920 8.837240 1.916940
2.731440 8.579850 2.011020
9.494220 8.418470 3.530890
8.125290 8.515810 4.175740
9.526870 8.133980 8.946710
9.099010 8.099430 6.482100
6.984890 8.786310 6.417110
4.006400 6.144970 8.694210
4.510880 5.277200 7.529810
8.706360 2.510310 7.925310
6.824640 4.191750 7.536470
5.360270 3.410870 8.991680
6.488570 2.649620 9.096770
7.374070 8.735290 7.721340
6.792310 6.354760 1.276150
2.321990 8.238400 7.797400
5.634150 1.031420 4.175960
7.398240 1.288360 5.668070
6.024930 3.072830 5.135100
2.329700 6.636320 6.115000
1.609770 8.791730 5.714800
3.880690 8.344700 6.101290
0.815160 6.093030 0.149700
2.757090 4.895750 0.793260
0.814850 4.686320 1.971690
0.971510 3.845290 10.105690
9.650710 0.565910 0.239540
8.224050 2.217960 0.969860
7.503950 0.012560 0.824300
8.981320 0.671910 2.480460
5.262320 1.317410 6.469480
9.951460 6.597620 2.825310
10.070470 7.725280 6.177080
6.831760 8.923700 8.634670
6.051700 9.136570 5.992020
0.200960 7.717090 8.675730
9.659640 9.130460 9.382940
9.058190 7.476930 9.690120
7.430660 7.781500 3.741450
7.747140 9.530230 3.968560
9.389090 8.757340 2.492380
10.189920 9.113800 4.019030
1.560020 7.495670 3.224870
2.409760 8.159660 1.043270
7.715390 5.878910 0.955230
4.390160 9.377350 0.969780
2.227650 9.550190 2.187570
1.106050 4.585200 5.573520
1.715500 3.768580 8.164070
1.585450 0.371010 5.631730
4.421570 7.975710 8.287030
4.097220 5.587240 9.624720
2.943520 6.384400 8.586730
3.733040 4.609300 7.144350
4.872690 5.877330 6.690140
9.145270 2.923540 7.013870
8.554920 1.433930 7.791300
9.333620 2.716070 8.799920
4.430770 3.353300 9.545900
6.712880 1.775530 9.707090
7.297240 4.801100 6.772680
3.302710 0.935810 8.356250
1.876820 1.566120 9.278090
1.742090 0.062150 8.324800
0.319960 3.278650 3.510420
4.613700 9.443190 2.760560
6.750830 3.731090 1.816620
4.975380 3.584700 1.648550
5.705280 4.095650 3.211640
6.898840 8.601640 1.115230
0.371960 1.499310 3.544920
3.731700 6.127960 2.419260
3.879950 1.601210 3.634010
2.734330 3.419500 3.092230
1.900920 2.382430 1.928120
5.729600 5.558280 1.698850
5.085860 7.627370 1.779020
1.194900 2.447760 5.216920
8.088570 8.401670 5.653680
8.673450 8.259050 7.752540
5.584860 4.377220 8.029390
1.792690 1.845310 7.221570
7.377140 3.118550 8.152170
4.809530 7.308300 8.884170
2.977940 1.348820 3.350060
10.120040 7.129090 3.619000
2.508360 7.607360 3.005530
100
2.556060 7.996420 6.407100
6.079560 1.690500 5.367520
1.321040 4.897310 0.679980
8.608700 0.875090 1.145810
2.198040 2.462180 2.980090
0.921650 2.416770 3.775340
2.217410 1.046790 8.368630
1.536170 1.401130 5.975020
1.280210 3.597130 5.984580
1.639380 3.210690 7.240340
6.397210 7.663590 1.342660
4.708390 6.366240 2.006460
5.786180 4.149670 2.121270
4.250800 8.835270 1.915510
2.730210 8.584200 2.007820
9.500550 8.417600 3.533700
8.129960 8.516120 4.173440
9.523700 8.140140 8.947700
9.097130 8.098420 6.481310
6.984120 8.782850 6.412350
4.014000 6.154080 8.699630
4.513420 5.284400 7.532150
8.702380 2.508380 7.925230
6.822520 4.194800 7.540350
5.357780 3.406630 8.988710
6.486490 2.644780 9.090090
7.370430 8.740210 7.715740
6.794670 6.356410 1.278540
2.323940 8.232490 7.797260
5.625560 1.029690 4.179090
7.395620 1.296290 5.662540
6.020810 3.072270 5.135690
2.333830 6.636400 6.108420
1.611380 8.790870 5.716840
3.883040 8.345550 6.098160
0.818950 6.096830 0.151140
2.754100 4.889840 0.797300
0.808270 4.689580 1.971560
0.967490 3.845720 10.103820
9.652480 0.561140 0.240600
8.224310 2.211830 0.973770
7.502140 0.009770 0.822850
8.980000 0.660250 2.479520
5.259690 1.325790 6.473730
9.948430 6.584990 2.824900
10.067520 7.717820 6.173260
6.819790 8.923960 8.627440
6.050350 9.133810 5.986280
0.201250 7.734220 8.676580
9.651850 9.138100 9.378590
9.060330 7.484850 9.695220
7.437590 7.785310 3.734560
7.755530 9.534720 3.967370
9.399110 8.760950 2.501010
10.199480 9.106270 4.030160
1.567510 7.505690 3.229700
2.415910 8.154120 1.035990
7.719520 5.885310 0.953380
4.403180 9.381400 0.972710
2.221120 9.549250 2.183470
1.095270 4.587170 5.579770
1.717730 3.767740 8.166420
1.587330 0.373350 5.630120
4.423830 7.980710 8.297050
4.100620 5.592350 9.626720
2.949450 6.387940 8.587390
3.730430 4.622600 7.146130
4.885190 5.878680 6.693230
9.141410 2.917870 7.013300
8.548730 1.433630 7.792370
9.329420 2.712450 8.797080
4.431470 3.350090 9.540960
6.710600 1.777060 9.704490
7.287100 4.789570 6.765890
3.309910 0.932950 8.352560
1.883990 1.565220 9.273540
1.744510 0.064130 8.323720
0.320280 3.282240 3.507520
4.621040 9.432650 2.766520
6.755180 3.731220 1.830270
4.982400 3.578080 1.646310
5.696110 4.096910 3.211800
6.907920 8.599560 1.124100
0.359810 1.502030 3.543110
3.732150 6.129700 2.417580
3.879430 1.602820 3.628180
2.730240 3.414990 3.094420
1.896880 2.374300 1.930410
5.731840 5.556870 1.699090
5.088310 7.625070 1.775990
1.189730 2.449730 5.217760
8.088100 8.402270 5.651430
8.672580 8.267890 7.751390
5.583590 4.377330 8.031870
1.793670 1.844320 7.218970
7.375550 3.119930 8.152310
4.818730 7.316560 8.891590
2.974510 1.345590 3.352180
10.120660 7.125490 3.624940
2.512640 7.611010 3.004500
100
2.560240 7.992910 6.405910
6.075440 1.692460 5.366760
1.318490 4.898160 0.681210
8.610510 0.870070 1.145270
2.199120 2.457860 2.978100
0.918550 2.414550 3.774740
2.224570 1.045760 8.362950
1.538490 1.403390 5.971080
1.275220 3.599300 5.990180
1.642710 3.210610 7.242470
6.398420 7.663050 1.339100
4.711540 6.365120 2.009560
5.786700 4.147850 2.122400
4.254160 8.833700 1.913980
2.729600 8.587790 2.004290
9.506730 8.416720 3.536650
8.134340 8.516710 4.171390
9.520530 8.146120 8.948550
9.095380 8.097130 6.480670
6.983580 8.779750 6.407590
4.021510 6.162510 8.704800
4.516100 5.291100 7.534920
8.698200 2.506830 7.925250
6.820550 4.197450 7.544160
5.355440 3.402550 8.986040
6.484220 2.639920 9.083450
7.367000 8.744540 7.710640
6.797160 6.357500 1.280830
2.325810 8.226900 7.797180
5.617300 1.028010 4.182140
7.393270 1.303870 5.657130
6.016810 3.072010 5.136260
2.337720 6.636450 6.102130
1.612900 8.790110 5.718620
3.885270 8.346400 6.095180
0.822650 6.100630 0.152560
2.751080 4.884200 0.801110
0.801710 4.692860 1.971530
0.963580 3.846000 10.102020
9.654290 0.556600 0.241690
8.224560 2.206080 0.977520
7.500360 0.007200 0.821400
8.978800 0.649060 2.478620
5.257100 1.333890 6.477690
9.945480 6.573500 2.826010
10.064500 7.712190 6.170320
6.808020 8.924960 8.620980
6.049430 9.130350 5.979680
0.201280 7.750060 8.676190
9.644540 9.145910 9.375580
9.061550 7.492090 9.698490
7.443980 7.788340 3.729110
7.763010 9.537530 3.965040
9.408790 8.763650 2.507710
10.208020 9.099800 4.040660
1.571310 7.514910 3.235190
2.420300 8.151350 1.027620
7.723650 5.892700 0.952440
4.417010 9.387820 0.977120
2.216420 9.547600 2.180210
1.084790 4.588970 5.585630
1.720000 3.767240 8.168970
1.589940 0.375000 5.629700
4.426530 7.987590 8.305900
4.103520 5.595110 9.629850
2.956140 6.392110 8.586970
3.727030 4.635890 7.147630
4.898580 5.880720 6.696370
9.137270 2.913120 7.012380
8.543090 1.433290 7.793520
9.326620 2.708910 8.795210
4.430480 3.347270 9.536320
6.707970 1.780020 9.701330
7.277190 4.777960 6.758560
3.316770 0.930230 8.348790
1.891090 1.564650 9.269860
1.747260 0.064910 8.322430
0.317440 3.286630 3.505600
4.627780 9.421320 2.771280
6.759220 3.730600 1.842810
4.988520 3.572280 1.644000
5.687100 4.097410 3.212130
6.915960 8.596790 1.131770
0.348370 1.505430 3.542030
3.733420 6.129650 2.415430
3.878770 1.602260 3.622640
2.726560 3.411390 3.097680
1.893190 2.367260 1.929840
5.734080 5.555670 1.699550
5.090310 7.623330 1.773260
1.184840 2.451890 5.218510
8.087410 8.402920 5.649230
8.672000 8.276440 7.750160
5.582490 4.377390 8.033980
1.794610 1.843290 7.216470
7.374210 3.121460 8.152490
4.827420 7.324560 8.898610
2.971620 1.342270 3.354220
10.121250 7.121850 3.630560
2.516880 7.614540 3.003900
100
2.564370 7.989340 6.404660
6.071130 1.693930 5.366140
1.316270 4.898800 0.682330
8.612230 0.865040 1.144580
2.200130 2.453380 2.976060
0.915200 2.412470 3.774400
2.231620 1.044750 8.357320
1.540740 1.405470 5.967150
1.270090 3.601630 5.995500
1.646070 3.210730 7.244730
6.399570 7.662030 1.335450
4.714650 6.364140 2.012700
5.787440 4.146130 2.123400
4.257150 8.832490 1.912340
2.729670 8.590630 2.000200
9.513040 8.415750 3.539960
8.138620 8.517640 4.169500
9.517240 8.152250 8.949260
9.093710 8.095560 6.480140
6.983140 8.776920 6.402580
4.029250 6.170580 8.709920
4.519050 5.297600 7.538250
8.693650 2.505600 7.925340
6.818650 4.199760 7.548040
5.353200 3.398490 8.983540
6.481610 2.634970 9.076600
7.363650 8.748480 7.705920
6.799890 6.358040 1.283100
2.327680 8.221360 7.797110
5.609010 1.026300 4.185230
7.391070 1.311400 5.651610
6.012740 3.072060 5.136820
2.341530 6.636450 6.095870
1.614400 8.789400 5.720230
3.887500 8.347290 6.092220
0.826440 6.104570 0.154030
2.747890 4.878580 0.804850
0.794900 4.696270 1.971580
0.959620 3.846150 10.100240
9.656210 0.552080 0.242840
8.224800 2.200470 0.981280
7.498540 0.004750 0.819910
8.977670 0.637860 2.477750
5.254450 1.342050 6.481510
9.943190 6.564760 2.831520
10.061080 7.708290 6.168380
6.796640 8.926650 8.614350
6.049140 9.125970 5.972110
0.201160 7.765030 8.674620
9.637400 9.154210 9.374010
9.061730 7.498710 9.700100
7.449770 7.790470 3.724680
7.769960 9.538520 3.961560
9.418640 8.765750 2.512040
10.215610 9.093950 4.050710
1.572300 7.523560 3.241450
2.423330 8.151730 1.019210
7.727980 5.901040 0.952430
4.431920 9.396560 0.983230
2.213210 9.545860 2.177540
1.074240 4.590560 5.591520
1.722440 3.766920 8.171880
1.593340 0.375970 5.630090
4.429950 7.996580 8.314170
4.106180 5.596040 9.634100
2.964050 6.397440 8.585790
3.723070 4.649830 7.149000
4.912980 5.883530 6.699900
9.132810 2.909140 7.011010
8.537630 1.432540 7.794760
9.325250 2.705450 8.794460
4.427220 3.344560 9.532240
6.705320 1.783190 9.698170
7.267620 4.766640 6.749870
3.323580 0.927570 8.344540
1.898680 1.564150 9.266440
1.750590 0.064500 8.320800
0.312520 3.290660 3.504860
4.633860 9.408920 2.774930
6.763210 3.729210 1.854700
4.993930 3.567080 1.641290
5.677900 4.097180 3.212670
6.923200 8.593630 1.138280
0.337370 1.509390 3.541710
3.735390 6.127810 2.412910
3.877760 1.599250 3.617170
2.723440 3.408720 3.101810
1.889910 2.361140 1.926460
5.736420 5.554620 1.700260
5.091930 7.622060 1.770700
1.180020 2.454330 5.219180
8.086510 8.403570 5.646950
8.671620 8.285030 7.748790
5.581440 4.377410 8.035840
1.795590 1.842210 7.213970
7.373040 3.123150 8.152700
4.835960 7.332650 8.905530
2.969170 1.338720 3.356290
10.121820 7.117890 3.635920
2.521180 7.618130 3.003680
100
2.568410 7.985780 6.403350
6.066630 1.694910 5.365680
1.314360 4.899210 0.683340
8.613820 0.859980 1.143760
2.200900 2.448740 2.973980
0.911550 2.410730 3.774260
2.238490 1.043750 8.351820
1.542880 1.407360 5.963270
1.264850 3.604090 6.000480
1.649400 3.211010 7.247100
6.400650 7.660520 1.331760
4.717740 6.363300 2.015790
5.788430 4.144520 2.124300
4.259770 8.831700 1.910610
2.730460 8.592630 1.995510
9.519480 8.414690 3.543650
8.142800 8.518920 4.167780
9.513870 8.158600 8.949780
9.092090 8.093770 6.479720
6.982720 8.774430 6.397320
4.037190 6.178230 8.715000
4.522330 5.303910 7.542080
8.688810 2.504690 7.925490
6.816860 4.201730 7.551950
5.351040 3.394460 8.981170
6.478600 2.630040 9.069560
7.360390 8.752030 7.701640
6.802840 6.358010 1.285310
2.329570 8.215890 7.797070
5.600700 1.024590 4.188380
7.389050 1.318860 5.646000
6.008600 3.072460 5.137340
2.345270 6.636380 6.089640
1.615900 8.788740 5.721670
3.889700 8.348220 6.089300
0.830300 6.108630 0.155540
2.744540 4.872990 0.808530
0.787830 4.699810 1.971710
0.955610 3.846230 10.098480
9.658240 0.547600 0.244060
8.225050 2.195020 0.985030
7.496700 0.002400 0.818350
8.976620 0.626670 2.476900
5.251770 1.350250 6.485200
9.941870 6.559560 2.842320
10.057420 7.706110 6.167560
6.786270 8.928960 8.607030
6.049540 9.120600 5.963660
0.200810 7.778930 8.672030
9.630440 9.162740 9.373970
9.060700 7.504430 9.700100
7.454810 7.791550 3.721170
7.776280 9.537830 3.956970
9.428850 8.767190 2.513890
10.222060 9.088650 4.060060
1.572240 7.531600 3.248020
2.425120 8.155550 1.011810
7.732720 5.909820 0.953350
4.447620 9.407300 0.990990
2.211440 9.544660 2.175390
1.063680 4.591950 5.597520
1.725110 3.766610 8.175150
1.597490 0.376220 5.630970
4.434440 8.007180 8.322360
4.108670 5.595810 9.638930
2.973210 6.404230 8.584190
3.718980 4.664540 7.150400
4.927870 5.886960 6.704240
9.128060 2.905920 7.009270
8.532200 1.431240 7.796050
9.325160 2.702120 8.794660
4.421760 3.341850 9.528830
6.703050 1.785230 9.695700
7.258670 4.756120 6.739730
3.330320 0.925040 8.339560
1.906980 1.563480 9.262860
1.754740 0.063100 8.318770
0.306700 3.292990 3.505540
4.638980 9.395830 2.777730
6.767120 3.727130 1.865840
4.998670 3.562610 1.638030
5.668550 4.096220 3.213300
6.929530 8.590410 1.143320
0.326900 1.513480 3.542210
3.737830 6.124130 2.410240
3.876690 1.593700 3.611930
2.720990 3.406810 3.106480
1.887470 2.356140 1.920950
5.738880 5.553700 1.701220
5.093160 7.621250 1.768320
1.175300 2.457040 5.219780
8.085480 8.404190 5.644590
8.671400 8.293580 7.747300
5.580400 4.377400 8.037450
1.796680 1.841120 7.211480
7.372060 3.124970 8.152950
4.844290 7.340810 8.912300
2.967140 1.334950 3.358380
10.122350 7.113580 3.640960
2.525430 7.621770 3.003830
100
2.572320 7.982300 6.401960
6.061920 1.695450 5.365400
1.312720 4.899380 0.684220
8.615230 0.854880 1.142840
2.201320 2.443980 2.971850
0.907600 2.409500 3.774280
2.245150 1.042720 8.346480
1.544910 1.409080 5.959530
1.259500 3.606620 6.005090
1.652650 3.211420 7.249510
6.401640 7.658550 1.328070
4.720820 6.362630 2.018790
5.789640 4.143000 2.125150
4.262040 8.831330 1.908790
2.732030 8.593760 1.990240
9.526030 8.413530 3.547680
8.146890 8.520490 4.166230
9.510470 8.165250 8.950090
9.090480 8.091850 6.479400
6.982280 8.772300 6.391820
4.045340 6.185420 8.720080
4.525970 5.310040 7.546370
8.683760 2.504110 7.925690
6.815260 4.203380 7.555760
5.348870 3.390490 8.978960
6.475180 2.625190 9.062370
7.357220 8.755190 7.697830
6.805970 6.357410 1.287460
2.331490 8.210470 7.797020
5.592370 1.022850 4.191570
7.387180 1.326230 5.640290
6.004380 3.073220 5.137820
2.348940 6.636220 6.083440
1.617390 8.788130 5.722960
3.891900 8.349180 6.086410
0.834250 6.112800 0.157080
2.741050 4.867440 0.812140
0.780520 4.703480 1.971900
0.951550 3.846250 10.096780
9.660390 0.543150 0.245330
8.225300 2.189720 0.988760
7.494850 0.000160 0.816730
8.975650 0.615490 2.476070
5.249060 1.358480 6.488740
9.941260 6.557170 2.857030
10.054030 7.705530 6.167830
6.777340 8.931870 8.598860
6.050470 9.114320 5.954360
0.200000 7.791720 8.668670
9.623620 9.171020 9.375440
9.058360 7.508990 9.698540
7.459170 7.791650 3.718530
7.781770 9.535970 3.951290
9.439580 8.767720 2.513970
10.227370 9.083900 4.068600
1.573300 7.539010 3.254290
2.425700 8.162690 1.005970
7.738250 5.918460 0.955150
4.463750 9.419700 1.000280
2.211150 9.544380 2.173690
1.053160 4.593280 5.603660
1.728010 3.766120 8.178730
1.602330 0.375880 5.632010
4.440370 8.018610 8.331090
4.111050 5.595330 9.643600
2.983470 6.412690 8.582490
3.715240 4.680140 7.151960
4.942630 5.890810 6.709850
9.123010 2.903390 7.007390
8.526720 1.429480 7.797390
9.325860 2.698940 8.795240
4.414830 3.339060 9.525810
6.701450 1.785250 9.694320
7.250280 4.746490 6.728630
3.336970 0.922710 8.333650
1.916120 1.562480 9.258810
1.759950 0.061050 8.316290
0.300910 3.292730 3.507690
4.642960 9.382580 2.780270
6.770870 3.724490 1.876180
5.002900 3.559050 1.634150
5.659150 4.094550 3.213810
6.934840 8.587370 1.146620
0.317010 1.517160 3.543530
3.740490 6.118660 2.407630
3.876190 1.585760 3.607170
2.719110 3.405170 3.111320
1.886370 2.352430 1.914510
5.741500 5.552910 1.702460
5.093990 7.620870 1.766090
1.170690 2.460010 5.220310
8.084400 8.404720 5.642150
8.671270 8.302070 7.745670
5.579310 4.377330 8.038840
1.797920 1.840070 7.209010
7.371220 3.126870 8.153250
4.852370 7.349060 8.918890
2.965510 1.330930 3.360470
10.122880 7.108990 3.645760
2.529490 7.625470 3.004330
100
2.576070 7.978970 6.400500
6.057020 1.695600 5.365330
1.311310 4.899330 0.684950
8.616420 0.849710 1.141840
2.201300 2.439180 2.969670
0.903360 2.408840 3.774440
2.251580 1.041620 8.341350
1.546810 1.410630 5.955960
1.254070 3.609140 6.009310
1.655790 3.211940 7.251920
6.402540 7.656140 1.324440
4.723890 6.362140 2.021640
5.791060 4.141560 2.125950
4.263970 8.831370 1.906880
2.734370 8.594070 1.984460
9.532660 8.412230 3.551930
8.150880 8.522260 4.164830
9.507070 8.172250 8.950150
9.088810 8.089870 6.479170
6.981790 8.770570 6.386120
4.053700 6.192110 8.725180
4.530020 5.316010 7.551080
8.678620 2.503830 7.925970
6.813910 4.204800 7.559340
5.346560 3.386610 8.976940
6.471340 2.620430 9.055120
7.354200 8.757970 7.694420
6.809230 6.356270 1.289520
2.333450 8.205100 7.796970
5.584020 1.021100 4.194820
7.385470 1.333500 5.634510
6.000070 3.074360 5.138230
2.352540 6.635950 6.077260
1.618880 8.787550 5.724100
3.894070 8.350170 6.083580
0.838280 6.117050 0.158650
2.737430 4.861910 0.815680
0.772980 4.707260 1.972150
0.947450 3.846240 10.095150
9.662640 0.538750 0.246650
8.225560 2.184580 0.992490
7.493010 10.298030 0.815030
8.974770 0.604330 2.475270
5.246330 1.366700 6.492140
9.940670 6.555590 2.872470
10.051590 7.706270 6.169040
6.769970 8.935390 8.590120
6.051610 9.107270 5.944230
0.198470 7.803380 8.664870
9.616900 9.178540 9.378300
9.054720 7.512260 9.695470
7.463130 7.791020 3.716790
7.786190 9.533740 3.944550
9.451000 8.766940 2.513470
10.231760 9.079830 4.076330
1.577050 7.545820 3.259760
2.424980 8.172550 1.001580
7.744870 5.926350 0.957760
4.479970 9.433370 1.010850
2.212570 9.545050 2.172300
1.042680 4.594790 5.609890
1.731160 3.765260 8.182530
1.607750 0.375230 5.632930
4.447900 8.030170 8.340790
4.113400 5.595500 9.647460
2.994560 6.422930 8.580960
3.712250 4.696630 7.153760
4.956730 5.894900 6.717100
9.117620 2.901410 7.005660
8.521120 1.427630 7.798760
9.326720 2.695880 8.795490
4.407580 3.336110 9.522660
6.700590 1.783090 9.693900
7.242190 4.737530 6.717510
3.343470 0.920640 8.326630
1.926130 1.561100 9.254260
1.766430 0.058740 8.313360
0.295670 3.289720 3.511100
4.645640 9.369780 2.783320
6.774320 3.721460 1.885700
5.006890 3.556620 1.629660
5.649810 4.092210 3.213950
6.939000 8.584570 1.148000
0.307740 1.519960 3.545690
3.743210 6.111520 2.405250
3.876960 1.575770 3.603110
2.717610 3.403110 3.115960
1.887050 2.350100 1.908400
5.744300 5.552210 1.703980
5.094430 7.620860 1.763990
1.166210 2.463190 5.220780
8.083330 8.405110 5.639640
8.671170 8.310440 7.743930
5.578130 4.377200 8.040040
1.799340 1.839090 7.206570
7.370520 3.128800 8.153620
4.860170 7.357400 8.925280
2.964210 1.326660 3.362540
10.123450 7.104260 3.650540
2.533250 7.629210 3.005160
100
2.579630 7.975850 6.398950
6.051950 1.695430 5.365480
1.310050 4.899080 0.685560
8.617360 0.844480 1.140810
2.200800 2.434390 2.967470
0.898900 2.408760 3.774730
2.257770 1.040400 8.336410
1.548570 1.412040 5.952630
1.248590 3.611600 6.013160
1.658740 3.212540 7.254240
6.403320 7.653340 1.320910
4.726960 6.361810 2.024300
5.792650 4.140170 2.126730
4.265580 8.831820 1.904890
2.737470 8.593670 1.978320
9.539300 8.410790 3.556300
8.154740 8.524090 4.163550
9.503730 8.179630 8.949950
9.087020 8.087940 6.479030
6.981230 8.769250 6.380320
4.062260 6.198310 8.730310
4.534530 5.321850 7.556150
8.673510 2.503820 7.926320
6.812890 4.206050 7.562520
5.343990 3.382850 8.975110
6.467120 2.615700 9.047950
7.351340 8.760370 7.691300
6.812600 6.354610 1.291500
2.335440 8.199780 7.796880
5.575670 1.019320 4.198110
7.383900 1.340630 5.628650
5.995670 3.075870 5.138550
2.356090 6.635540 6.071130
1.620400 8.787020 5.725110
3.896230 8.351180 6.080800
0.842410 6.121360 0.160260
2.733690 4.856410 0.819160
0.765210 4.711140 1.972430
0.943320 3.846230 10.093620
9.665010 0.534400 0.248020
8.225840 2.179600 0.996190
7.491180 10.296010 0.813250
8.973970 0.593210 2.474480
5.243580 1.374910 6.495390
9.939260 6.552340 2.884820
10.050720 7.708080 6.171020
6.764050 8.939600 8.581460
6.052510 9.099650 5.933260
0.195980 7.813990 8.660990
9.610250 9.184880 9.382400
9.049930 7.514270 9.690830
7.467070 7.789980 3.715990
7.789340 9.531930 3.936830
9.463210 8.764510 2.513660
10.235610 9.076580 4.083330
1.583930 7.551960 3.264150
2.422790 8.184170 0.997990
7.752700 5.933000 0.961160
4.495910 9.447900 1.022390
2.216010 9.546430 2.171090
1.032250 4.596710 5.616150
1.734540 3.763910 8.186450
1.613600 0.374610 5.633430
4.456900 8.041480 8.351500
4.115790 5.597010 9.650190
3.006160 6.434930 8.579880
3.710280 4.713890 7.155820
4.969780 5.899230 6.726070
9.111870 2.899840 7.004340
8.515380 1.426130 7.800180
9.327130 2.692930 8.794730
4.401130 3.332950 9.518920
6.700290 1.779330 9.693790
7.234090 4.728930 6.707460
3.349780 0.918920 8.318400
1.936910 1.559380 9.249380
1.774260 0.056440 8.309970
0.290930 3.284590 3.515320
4.646830 9.357940 2.787610
6.777360 3.718240 1.894360
5.010900 3.555510 1.624610
5.640660 4.089250 3.213520
6.941840 8.581920 1.147320
0.299190 1.521550 3.548690
3.746010 6.102960 2.403180
3.879410 1.564080 3.599880
2.716240 3.399970 3.120070
1.889770 2.349130 1.903620
5.747300 5.551610 1.705800
5.094530 7.621180 1.762010
1.161900 2.466550 5.221200
8.082370 8.405320 5.637070
8.671030 8.318650 7.742070
5.576810 4.376980 8.041070
1.800980 1.838250 7.204170
7.369900 3.130720 8.154070
4.867700 7.365800 8.931480
2.963180 1.322140 3.364570
10.124120 7.099600 3.655550
2.536700 7.633010 3.006280
100
2.582980 7.972990 6.397330
6.046720 1.695040 5.365860
1.308900 4.898650 0.686030
8.618030 0.839180 1.139790
2.199790 2.429680 2.965300
0.894320 2.409150 3.775140
2.263750 1.039040 8.331640
1.550180 1.413320 5.949550
1.243100 3.613940 6.016670
1.661470 3.213180 7.256420
6.403970 7.650220 1.317510
4.729990 6.361640 2.026750
5.794380 4.138820 2.127490
4.266920 8.832660 1.902860
2.741280 8.592730 1.972000
9.545920 8.409160 3.560660
8.158470 8.525900 4.162350
9.500440 8.187340 8.949480
9.085100 8.086140 6.478950
6.980610 8.768350 6.374480
4.071020 6.204070 8.735450
4.539510 5.327580 7.561570
8.668510 2.504030 7.926740
6.812210 4.207220 7.565180
5.341060 3.379260 8.973470
6.462600 2.610900 9.041010
7.348690 8.762400 7.688330
6.816050 6.352460 1.293370
2.337480 8.194520 7.796750
5.567310 1.017520 4.201460
7.382470 1.347600 5.622730
5.991170 3.077760 5.138780
2.359570 6.635000 6.065020
1.621930 8.786520 5.725980
3.898360 8.352220 6.078090
0.846640 6.125700 0.161890
2.729860 4.850930 0.822560
0.757250 4.715120 1.972720
0.939150 3.846240 10.092190
9.667470 0.530090 0.249430
8.226150 2.174770 0.999860
7.489370 10.294100 0.811380
8.973260 0.582130 2.473710
5.240830 1.383070 6.498490
9.936450 6.545840 2.891590
10.051730 7.710790 6.173640
6.759300 8.944610 8.573700
6.052800 9.091660 5.921520
0.192450 7.823580 8.657340
9.603650 9.189880 9.387630
9.044230 7.515180 9.684520
7.471370 7.788870 3.716100
7.791130 9.531080 3.928320
9.476220 8.760210 2.515540
10.239330 9.074310 4.089790
1.593040 7.557360 3.267530
2.418940 8.196340 0.994260
7.761540 5.938100 0.965430
4.511240 9.462920 1.034540
2.221840 9.548060 2.169900
1.021880 4.599180 5.622420
1.738130 3.761950 8.190380
1.619730 0.374410 5.633290
4.466890 8.052600 8.362850
4.118360 5.600230 9.651970
3.017960 6.448530 8.579450
3.709380 4.731640 7.158090
4.981590 5.903950 6.736580
9.105790 2.898580 7.003600
8.509460 1.425430 7.801640
9.326660 2.690160 8.792600
4.396250 3.329510 9.514310
6.700230 1.774940 9.693040
7.225810 4.720530 6.699410
3.355860 0.917610 8.308890
1.948260 1.557490 9.244600
1.783370 0.054230 8.306120
0.286210 3.278660 3.519660
4.646310 9.347370 2.793600
6.779910 3.715010 1.902150
5.015140 3.555810 1.619020
5.631830 4.085710 3.212450
6.943230 8.579230 1.144510
0.291560 1.521860 3.552560
3.749050 6.093310 2.401420
3.883390 1.551050 3.597460
2.714850 3.395280 3.123420
1.894560 2.349370 1.900630
5.750530 5.551060 1.707930
5.094340 7.621740 1.760090
1.157790 2.470040 5.221580
8.081580 8.405340 5.634460
8.670790 8.326690 7.740110
5.575350 4.376660 8.041970
1.802860 1.837580 7.201800
7.369330 3.132570 8.154630
4.874980 7.374200 8.937520
2.962370 1.317380 3.366550
10.124940 7.095120 3.660950
2.539900 7.636870 3.007600
100
2.586100 7.970430 6.395620
6.041390 1.694520 5.366470
1.307760 4.898070 0.686390
8.618420 0.833810 1.138800
2.198300 2.425080 2.963260
0.889700 2.409870 3.775670
2.269560 1.037500 8.327010
1.551630 1.414520 5.946770
1.237620 3.616120 6.019870
1.663920 3.213830 7.258380
6.404500 7.646840 1.314250
4.732940 6.361600 2.028960
5.796220 4.137520 2.128230
4.268040 8.833870 1.900850
2.745740 8.591420 1.965680
9.552450 8.407300 3.564940
8.162030 8.527610 4.161200
9.497200 8.195340 8.948750
9.083060 8.084530 6.478890
6.979920 8.767880 6.368700
4.079930 6.209500 8.740540
4.544970 5.333220 7.567350
8.663700 2.504410 7.927200
6.811880 4.208340 7.567260
5.337760 3.375860 8.971990
6.457840 2.605950 9.034430
7.346280 8.764100 7.685360
6.819620 6.349870 1.295120
2.339570 8.189300 7.796560
5.558940 1.015690 4.204860
7.381150 1.354410 5.616740
5.986550 3.080000 5.138900
2.363000 6.634300 6.058960
1.623490 8.786040 5.726730
3.900470 8.353270 6.075450
0.850980 6.130050 0.163540
2.725940 4.845480 0.825890
0.749090 4.719170 1.973000
0.934950 3.846290 10.090880
9.670020 0.525840 0.250870
8.226480 2.170110 1.003510
7.487590 10.292290 0.809420
8.972630 0.571120 2.472930
5.238090 1.391170 6.501460
